ply
format ascii 1.0
element vertex 871
property float x
property float y
property float z
property float nx
property float ny
property float nz
property uchar diffuse_red
property uchar diffuse_green
property uchar diffuse_blue
property uchar class
end_header
13.9446 14.1866 1.3787 -0.920 -0.383 -0.078 204 191 174 0
14.1891 13.5441 1.4691 -0.973 -0.137 0.184 199 187 171 0
14.0928 12.8779 1.5240 -0.981 -0.059 -0.185 204 191 174 0
14.0978 12.8337 1.5289 -0.980 -0.051 -0.193 204 191 174 0
14.0993 12.7867 1.5337 -0.980 -0.051 -0.193 205 192 174 0
14.1244 12.7585 1.5393 -0.986 -0.104 0.130 191 180 166 0
14.1529 12.7329 1.5449 -0.999 -0.042 0.034 106 96 90 0
14.1574 12.6885 1.5498 -1.000 -0.009 0.003 85 75 73 0
14.1578 12.6409 1.5546 -1.000 -0.009 0.003 85 77 74 0
14.1184 12.1842 1.5951 -0.948 -0.319 0.014 81 70 65 0
14.1195 12.1382 1.5998 -0.855 -0.516 -0.055 84 70 67 0
14.1387 12.1058 1.6051 -0.855 -0.516 -0.055 79 65 62 0
14.1557 12.0717 1.6104 -0.871 -0.487 -0.063 86 73 69 0
14.2901 12.0779 1.6247 -0.874 -0.389 0.292 85 71 66 0
14.1009 11.8915 1.6220 -0.995 0.099 -0.012 83 69 64 0
13.9888 11.7630 1.6222 -0.998 -0.010 -0.065 81 65 60 0
14.0174 11.6008 1.6414 -0.975 -0.211 0.064 220 147 10 0
14.0286 11.5632 1.6463 -0.948 -0.309 0.080 204 87 4 0
14.0454 11.5298 1.6515 -0.943 -0.316 0.102 193 80 4 0
14.0679 11.3642 1.6703 -0.578 -0.664 0.475 229 163 71 0
14.1029 11.3436 1.6762 -0.872 -0.358 0.334 237 157 17 0
14.1639 11.3411 1.6832 -0.667 -0.726 -0.168 241 175 11 0
14.1911 11.3148 1.6888 -0.667 -0.726 -0.168 238 201 31 0
14.3805 11.0376 1.7372 -0.989 -0.038 0.146 180 159 139 0
14.4052 10.9640 1.7472 -0.990 0.070 -0.120 183 164 144 0
14.4046 10.8739 1.7560 -0.978 0.138 -0.155 181 162 145 0
14.3966 10.8239 1.7600 -0.979 0.137 -0.153 182 163 145 0
14.3902 10.7750 1.7641 -0.979 0.127 -0.161 186 168 149 0
14.3952 10.7338 1.7687 -0.996 -0.075 -0.054 201 183 163 0
14.4270 10.7099 1.7746 -0.802 -0.489 0.344 208 191 170 0
14.2232 10.4459 1.7779 -0.979 -0.193 -0.059 212 196 175 0
14.2354 10.4101 1.7828 -0.983 -0.181 -0.039 210 195 174 0
14.2154 10.3537 1.7862 -0.981 -0.182 -0.068 212 196 175 0
14.2077 10.3054 1.7901 -0.988 -0.155 0.008 211 195 175 0
14.2103 10.2636 1.7945 -0.980 -0.197 0.003 210 195 173 0
14.2071 10.2182 1.7986 -0.958 -0.285 -0.022 212 197 176 0
14.2189 10.1824 1.8034 -0.976 -0.182 0.122 213 197 177 0
14.2257 10.1435 1.8080 -0.975 -0.154 0.160 213 198 177 0
14.2114 10.0915 1.8115 -0.976 -0.157 0.152 211 196 175 0
14.2184 10.0528 1.8161 -0.976 -0.157 0.152 211 196 175 0
14.2419 10.0243 1.8215 -0.979 -0.144 0.144 212 197 176 0
14.8573 9.1014 1.9808 -0.971 0.088 -0.224 223 208 191 0
14.8857 9.0744 1.9867 -0.972 0.093 -0.215 223 208 191 0
14.9338 9.0579 1.9936 -0.976 0.132 -0.173 222 205 189 0
14.8752 8.6510 2.0272 -0.975 0.132 -0.179 224 209 193 0
14.8586 8.5599 2.0343 -0.973 0.159 -0.167 224 211 197 0
14.8551 8.5170 2.0381 -0.975 0.132 -0.179 226 212 199 0
14.8530 8.4748 2.0421 -0.978 0.003 -0.210 226 212 199 0
14.8415 8.3872 2.0494 -0.950 -0.099 -0.297 221 207 194 0
14.8518 8.3514 2.0541 -0.974 -0.015 -0.225 225 212 198 0
14.8515 8.3105 2.0581 -0.974 -0.015 -0.225 223 209 196 0
14.8536 8.2708 2.0622 -0.952 0.048 -0.303 224 210 197 0
14.8459 8.2264 2.0657 -0.954 0.065 -0.293 224 211 197 0
14.8380 8.1820 2.0692 -0.958 0.008 -0.286 225 212 198 0
14.8447 8.1447 2.0736 -0.947 0.045 -0.317 227 213 199 0
14.8368 8.1005 2.0771 -0.942 0.043 -0.333 227 213 199 0
14.8336 8.0587 2.0809 -0.942 0.043 -0.333 225 212 197 0
14.8281 8.0158 2.0845 -0.962 0.066 -0.264 223 210 196 0
14.8220 7.9728 2.0880 -0.958 0.074 -0.275 220 206 191 0
14.5380 6.9502 2.1571 -0.926 -0.320 0.201 228 216 202 0
14.5503 6.9175 2.1617 -0.926 -0.320 0.201 231 216 202 0
14.5626 6.8848 2.1663 -0.926 -0.320 0.201 227 210 198 0
14.7022 6.7525 2.1949 -0.959 -0.274 -0.074 242 232 221 0
14.7116 6.7185 2.1993 -0.959 -0.274 -0.074 248 241 229 0
14.7736 6.7054 2.2074 -0.978 0.135 0.158 246 241 227 0
14.7751 6.6682 2.2113 -0.980 0.062 0.189 251 246 234 0
16.8265 7.0562 2.4012 -0.226 -0.923 0.310 250 244 230 0
16.9123 7.0463 2.4118 -0.225 -0.924 0.309 249 243 229 0
16.9859 7.0315 2.4214 -0.225 -0.924 0.309 246 240 226 0
17.0710 7.0207 2.4319 -0.245 -0.925 0.291 244 238 226 0
17.1386 7.0033 2.4412 -0.302 -0.884 0.357 249 245 232 0
17.2037 6.9847 2.4502 -0.302 -0.884 0.357 246 239 224 0
17.2953 6.9754 2.4613 -0.315 -0.878 0.359 245 238 223 0
17.7855 7.0213 2.5113 -0.255 -0.891 0.377 246 239 223 0
23.8563 7.3448 3.1547 -0.129 -0.842 -0.523 41 41 38 0
23.9494 7.3175 3.1677 -0.133 -0.840 -0.526 40 38 33 0
33.3927 8.3770 4.1137 -0.991 -0.092 0.094 41 38 37 0
33.4683 8.3242 4.1273 -0.990 -0.104 0.091 31 29 30 0
33.4762 8.2555 4.1350 -0.990 -0.104 0.091 38 39 39 0
33.3966 8.1670 4.1348 -0.991 -0.093 0.096 39 42 44 0
33.3199 8.0795 4.1349 -0.999 0.043 0.020 41 45 46 0
33.3271 8.0113 4.1424 -0.996 0.054 -0.068 43 45 46 0
29.0347 6.5595 3.8080 -0.819 0.487 -0.302 48 47 47 0
33.3652 6.6448 4.2812 -0.799 -0.520 0.303 62 63 66 0
33.4081 6.5850 4.2919 -0.799 -0.520 0.303 50 51 52 0
33.9324 4.4740 4.5580 -0.488 -0.787 0.377 81 88 95 0
33.7847 4.1971 4.5689 -0.561 -0.544 -0.624 85 92 100 0
33.1145 3.2431 4.5882 -0.838 0.016 -0.546 69 73 80 0
33.0891 3.1790 4.5917 -0.644 -0.697 -0.317 65 69 76 0
33.3020 2.8879 4.6441 -0.444 -0.611 -0.655 45 49 52 0
34.9899 2.9573 4.8250 -0.981 0.121 -0.152 43 46 49 0
25.3254 1.9222 3.8520 -0.954 -0.198 -0.224 108 108 106 0
26.3574 1.0731 4.0504 -0.711 0.319 -0.626 176 173 158 0
26.3338 1.0247 4.0525 -0.711 0.319 -0.626 173 171 156 0
26.3103 0.9764 4.0546 -0.711 0.319 -0.626 174 171 157 0
26.2932 0.9285 4.0575 -0.723 0.351 -0.595 172 169 154 0
26.2683 0.8805 4.0594 -0.723 0.351 -0.595 178 175 160 0
26.2332 0.8324 4.0602 -0.729 0.375 -0.573 181 176 162 0
26.2072 0.7847 4.0620 -0.729 0.375 -0.573 174 170 155 0
26.0455 0.5480 4.0674 -0.672 0.357 -0.649 173 171 158 0
26.0191 0.5013 4.0690 -0.672 0.357 -0.649 174 172 159 0
25.7599 0.2692 4.0631 -0.752 0.126 -0.647 168 163 152 0
25.7107 0.2235 4.0621 -0.760 0.143 -0.634 181 179 164 0
25.5399 0.1777 4.0476 -0.766 0.138 -0.628 182 180 165 0
25.7356 0.1330 4.0738 -0.779 0.200 -0.594 172 170 157 0
25.3869 -0.5305 4.1003 -0.941 0.294 -0.169 171 170 157 0
25.1290 -0.8690 4.1050 -0.751 -0.443 -0.490 179 177 162 0
25.1430 -0.9123 4.1108 -0.999 0.023 0.036 168 166 152 0
25.1083 -1.4611 4.1610 -0.979 0.188 0.073 149 146 134 0
25.2255 -1.5099 4.1788 -0.984 0.168 0.058 125 121 111 0
14.8249 -0.9734 2.9692 -0.442 -0.469 -0.764 78 77 77 0
14.8956 -1.0039 2.9801 -0.792 -0.287 -0.539 87 87 89 0
13.3187 -1.1108 2.8152 -0.665 0.568 0.485 78 80 85 0
13.1295 -1.1416 2.7972 -0.654 0.488 0.579 78 80 86 0
12.1596 -1.1683 2.6919 -0.758 0.650 0.058 69 72 81 0
12.1221 -1.1861 2.6895 -0.762 0.635 0.125 67 72 78 0
10.6882 -1.1499 2.5265 -0.699 0.063 0.713 67 72 78 0
10.2410 -1.1962 2.4813 -0.456 0.345 -0.820 12 10 23 0
10.1969 -1.2095 2.4777 -0.447 0.308 -0.840 12 11 26 0
10.1611 -1.2235 2.4751 -0.596 0.482 -0.642 15 12 28 0
10.1290 -1.2378 2.4729 -0.593 0.485 -0.642 19 18 30 0
9.9157 -1.2839 2.4538 -0.699 0.112 0.706 55 56 62 0
9.8776 -1.2968 2.4508 -0.824 0.182 0.537 56 57 63 0
9.2412 -1.3033 2.3806 -0.575 0.524 -0.628 18 18 29 0
9.1914 -1.3132 2.3761 -0.523 0.381 -0.762 10 10 23 0
8.9985 -1.3047 2.3538 -0.607 0.520 -0.601 6 5 21 0
8.9281 -1.3114 2.3466 -0.690 0.435 -0.579 9 9 23 0
5.8969 11.3796 0.7365 -0.942 -0.301 -0.150 127 160 199 0
5.8673 11.3024 0.7409 -0.869 -0.325 0.373 127 160 198 0
5.8762 11.2808 0.7440 -0.879 -0.333 0.343 131 161 199 0
5.9035 11.1826 0.7567 -0.966 -0.012 0.257 123 54 23 0
5.9047 11.1503 0.7601 -0.966 -0.012 0.257 202 109 33 0
5.9000 11.1095 0.7636 -0.986 0.079 0.149 162 59 5 0
5.9018 11.0780 0.7669 -0.981 0.169 0.094 247 172 29 0
5.9040 11.0473 0.7702 -0.987 0.102 0.126 253 188 3 0
5.9303 11.0503 0.7728 -0.743 -0.647 0.169 253 188 2 0
20.0088 25.3357 0.8947 -0.643 -0.721 0.256 129 162 200 0
20.1623 25.4296 0.9022 -0.779 -0.572 0.258 129 162 200 0
20.2076 25.3988 0.9102 -0.741 -0.600 0.303 127 160 198 0
20.2596 25.3756 0.9182 -0.734 -0.609 0.300 120 151 187 0
20.3319 25.3750 0.9262 -0.833 -0.355 0.424 124 152 190 0
20.2638 25.0508 0.9509 -0.854 -0.236 0.463 130 163 200 0
19.0455 22.6863 1.0524 -0.910 -0.318 0.266 23 21 22 0
19.0364 22.6013 1.0598 -0.916 -0.335 0.221 29 26 27 0
19.0574 22.5488 1.0673 -0.916 -0.335 0.221 32 30 31 0
19.2038 22.5548 1.0827 -0.887 -0.389 0.249 32 31 32 0
19.5355 22.7550 1.0991 -0.801 -0.061 0.596 30 28 29 0
19.5625 22.7074 1.1068 -0.807 -0.009 0.590 28 26 27 0
19.5799 22.6498 1.1144 -0.700 -0.061 0.711 28 26 27 0
19.5157 22.5068 1.1216 -0.891 -0.135 0.433 27 26 27 0
19.7278 22.6525 1.1304 -0.902 -0.165 0.398 28 27 28 0
20.0192 22.8792 1.1397 -0.886 -0.158 0.436 28 26 28 0
20.1114 22.8977 1.1480 -0.886 -0.164 0.435 27 26 28 0
12.8716 14.8379 1.1561 -0.656 -0.459 0.598 4 2 4 0
13.1886 14.7951 1.1951 -0.446 -0.723 0.528 173 108 35 0
13.3789 13.7247 1.3221 -0.635 -0.765 -0.105 202 189 172 0
14.0421 14.2140 1.3461 -0.646 -0.644 0.411 203 190 173 0
14.0710 14.1887 1.3518 -0.646 -0.644 0.411 202 189 172 0
14.0999 14.1633 1.3575 -0.646 -0.644 0.411 203 190 174 0
14.1301 14.1390 1.3632 -0.662 -0.631 0.405 202 189 173 0
14.1355 14.0930 1.3683 -0.687 -0.623 0.373 199 187 171 0
14.1904 14.0393 1.3797 -0.687 -0.623 0.373 200 188 172 0
14.1414 13.9463 1.3836 -0.764 -0.598 0.241 200 188 172 0
14.1096 13.8686 1.3878 -0.734 -0.598 0.323 200 188 172 0
14.1194 13.8268 1.3930 -0.797 -0.514 0.318 199 187 171 0
14.1456 13.7990 1.3986 -0.789 -0.522 0.323 199 187 171 0
14.1401 13.7442 1.4035 -0.941 -0.221 0.257 198 186 170 0
14.1698 13.6196 1.4191 -0.974 -0.130 0.185 196 184 168 0
14.0983 13.3618 1.4369 -0.942 -0.084 0.326 201 189 173 0
14.1204 13.3309 1.4424 -0.942 -0.091 0.324 201 190 173 0
14.1048 13.2690 1.4468 -0.885 -0.454 0.104 201 190 172 0
14.1080 13.2226 1.4517 -0.872 -0.484 0.071 200 189 171 0
14.0715 13.1439 1.4556 -0.807 -0.587 0.063 201 189 171 0
14.0853 13.1064 1.4608 -0.872 -0.458 0.172 202 190 173 0
14.0594 13.0368 1.4649 -0.905 -0.399 0.147 203 191 174 0
14.0698 12.9967 1.4700 -0.900 -0.409 0.149 200 187 170 0
14.0946 12.9683 1.4755 -0.970 -0.073 -0.231 202 190 172 0
14.0969 12.9218 1.4804 -0.970 -0.073 -0.231 200 189 171 0
14.1002 12.8762 1.4853 -0.981 -0.059 -0.185 204 191 173 0
14.1021 12.8295 1.4901 -0.981 -0.059 -0.185 207 194 177 0
14.1233 12.7982 1.4956 -0.984 -0.069 0.167 183 173 161 0
14.1498 12.7710 1.5012 -0.999 -0.042 0.034 97 89 82 0
14.1569 12.7285 1.5061 -1.000 -0.009 0.003 89 79 77 0
14.1574 12.6809 1.5109 -1.000 -0.009 0.003 85 75 73 0
14.1240 12.1812 1.5569 -0.950 -0.312 0.007 76 65 63 0
14.1242 12.1344 1.5615 -0.855 -0.516 -0.055 74 60 57 0
14.1434 12.1021 1.5669 -0.855 -0.516 -0.055 77 63 60 0
14.2827 12.0652 1.5858 -0.874 -0.389 0.292 84 72 69 0
13.9912 11.8036 1.5798 -0.998 -0.010 -0.065 83 69 65 0
14.0283 11.5560 1.6085 -0.893 -0.326 0.310 204 86 3 0
14.0440 11.5218 1.6136 -0.943 -0.316 0.102 195 86 8 0
14.0511 11.3907 1.6274 -0.768 -0.590 0.250 200 105 14 0
14.0477 11.3431 1.6317 -0.576 -0.671 0.467 247 165 15 0
14.0945 11.3309 1.6381 -0.889 -0.342 0.305 239 156 4 0
14.1735 11.3409 1.6457 -0.667 -0.726 -0.168 242 178 13 0
14.2007 11.3146 1.6513 -0.667 -0.726 -0.168 236 200 35 0
14.3752 11.0273 1.6989 -0.989 -0.038 0.146 203 186 172 0
14.4095 10.9601 1.7093 -0.990 0.070 -0.120 201 185 171 0
14.4237 10.9247 1.7144 -0.982 0.101 -0.159 197 182 168 0
14.4101 10.8708 1.7183 -0.978 0.138 -0.155 199 183 169 0
14.3960 10.7721 1.7265 -0.979 0.127 -0.161 179 161 145 0
14.3977 10.7287 1.7310 -0.996 -0.075 -0.054 200 183 165 0
14.4183 10.6977 1.7364 -0.816 -0.430 0.386 208 192 173 0
14.2274 10.5298 1.7321 -0.978 -0.186 0.090 212 196 174 0
14.2369 10.4920 1.7369 -0.985 -0.159 0.062 212 196 173 0
14.2312 10.4446 1.7410 -0.978 -0.202 -0.059 209 193 170 0
14.2389 10.4059 1.7457 -0.978 -0.202 -0.059 214 197 176 0
14.2084 10.2994 1.7529 -0.988 -0.155 0.008 209 193 171 0
14.1986 10.2498 1.7568 -0.958 -0.285 -0.022 211 195 173 0
14.2094 10.2133 1.7616 -0.958 -0.285 -0.022 213 197 177 0
14.2153 10.1738 1.7662 -0.979 -0.204 -0.009 214 197 177 0
14.3998 9.8564 1.8179 -0.992 0.122 -0.014 220 206 187 0
14.4033 9.8156 1.8223 -0.931 0.289 -0.221 217 204 184 0
14.8657 9.0999 1.9439 -0.971 0.088 -0.224 225 209 193 0
14.8904 9.0710 1.9495 -0.972 0.088 -0.220 225 209 192 0
14.9010 9.0345 1.9543 -0.972 0.132 -0.193 224 209 192 0
14.8781 8.9803 1.9572 -0.967 0.164 -0.198 225 209 193 0
14.8677 8.8492 1.9690 -0.218 -0.121 -0.968 221 204 188 0
14.8708 8.8091 1.9734 -0.218 -0.121 -0.968 225 208 191 0
14.8739 8.7691 1.9777 -0.218 -0.121 -0.968 227 210 194 0
14.8770 8.7291 1.9820 -0.218 -0.121 -0.968 228 211 195 0
14.8878 8.6931 1.9867 -0.977 0.120 -0.176 226 208 191 0
14.8779 8.6466 1.9903 -0.976 0.114 -0.186 224 208 191 0
14.8731 8.6028 1.9941 -0.972 0.150 -0.183 222 207 190 0
14.8645 8.5572 1.9977 -0.973 0.159 -0.167 222 207 191 0
14.8615 8.5145 2.0016 -0.975 0.132 -0.179 221 204 188 0
14.8608 8.4731 2.0056 -0.978 0.003 -0.210 216 199 183 0
14.8512 8.3863 2.0132 -0.980 0.005 -0.199 215 198 183 0
14.8602 8.3499 2.0178 -0.974 -0.015 -0.225 217 200 186 0
14.8599 8.3090 2.0218 -0.974 -0.015 -0.225 214 197 182 0
14.8596 8.2681 2.0258 -0.974 -0.015 -0.225 215 197 183 0
14.8500 8.2228 2.0293 -0.972 0.052 -0.230 214 196 181 0
14.8487 8.1816 2.0332 -0.958 0.008 -0.286 214 195 179 0
14.8496 8.1415 2.0373 -0.962 0.066 -0.264 215 196 179 0
14.8457 8.0993 2.0411 -0.962 0.066 -0.264 211 192 175 0
14.8418 8.0571 2.0448 -0.962 0.066 -0.264 212 193 175 0
14.8379 8.0150 2.0486 -0.962 0.066 -0.264 210 191 173 0
14.8322 7.9721 2.0522 -0.958 0.074 -0.275 205 185 166 0
14.8319 7.9319 2.0562 -0.894 -0.037 -0.447 203 184 164 0
14.8279 7.8900 2.0599 -0.934 0.015 -0.357 200 182 163 0
14.8185 7.8457 2.0633 -0.938 0.212 -0.274 197 177 157 0
14.5009 6.9297 2.1195 -0.983 -0.167 -0.075 166 136 109 0
14.6964 6.7831 2.1554 -0.959 -0.274 -0.074 220 203 183 0
14.7058 6.7490 2.1598 -0.959 -0.274 -0.074 244 237 224 0
14.7366 6.7235 2.1657 -0.996 -0.074 0.044 246 242 230 0
17.0593 7.0111 2.3913 -0.245 -0.925 0.291 242 237 224 0
17.1308 6.9951 2.4007 -0.245 -0.925 0.291 248 244 232 0
21.9877 8.1287 2.8195 -0.607 -0.530 0.592 241 233 218 0
22.8954 7.2744 3.0036 0.136 -0.987 -0.087 213 201 184 0
33.4143 8.3738 4.0451 -0.991 -0.100 0.083 51 51 53 0
33.3801 8.2954 4.0492 -0.991 0.135 -0.022 63 64 67 0
33.3315 8.0041 4.0728 -0.996 0.054 -0.068 65 69 73 0
32.9915 6.9712 4.1381 -0.845 0.534 -0.009 56 56 59 0
33.2672 6.7540 4.1898 -0.889 -0.336 0.311 26 22 18 0
33.7727 4.4475 4.4741 -0.530 -0.776 0.342 38 41 46 0
33.1193 3.1752 4.5290 -0.648 -0.681 -0.341 26 29 36 0
34.9997 2.9514 4.7569 -0.981 0.121 -0.152 6 7 9 0
34.9587 2.8838 4.7591 -0.982 0.112 -0.151 7 7 9 0
34.6254 2.7311 4.7378 -0.896 0.443 -0.030 7 7 8 0
25.6239 2.0331 3.8224 -0.384 0.015 -0.923 6 6 7 0
25.3375 1.9183 3.8025 -0.956 -0.206 -0.207 100 99 97 0
25.0437 1.2510 3.8366 -0.778 -0.423 -0.465 180 176 162 0
26.3476 0.9730 4.0068 -0.729 0.375 -0.573 176 171 157 0
26.3213 0.9247 4.0087 -0.729 0.375 -0.573 174 170 156 0
26.2688 0.8288 4.0125 -0.729 0.375 -0.573 177 170 157 0
26.2427 0.7810 4.0144 -0.729 0.375 -0.573 170 165 151 0
26.0399 0.5435 4.0158 -0.702 0.336 -0.628 152 147 136 0
25.7818 0.1741 4.0242 -0.752 0.229 -0.618 141 136 125 0
25.4033 -0.4473 4.0445 -0.557 -0.462 -0.690 90 85 76 0
25.4309 -0.4917 4.0519 -0.557 -0.462 -0.690 87 81 73 0
25.4585 -0.5362 4.0594 -0.557 -0.462 -0.690 84 78 70 0
25.4972 -0.5809 4.0680 -0.715 -0.341 -0.610 80 73 66 0
25.5306 -0.6255 4.0761 -0.709 -0.342 -0.617 79 72 64 0
25.5766 -0.6706 4.0856 -0.684 -0.314 -0.658 73 66 59 0
14.9283 -1.0083 2.9543 -0.787 -0.298 -0.540 89 90 92 0
14.9909 -1.0384 2.9641 -0.461 -0.114 -0.880 87 86 89 0
14.8888 -1.0573 2.9548 -0.492 -0.081 -0.867 86 85 90 0
13.9207 -1.0881 2.8520 -0.711 0.623 0.327 84 85 89 0
12.1532 -1.1695 2.6667 -0.753 0.656 -0.058 68 72 80 0
12.1130 -1.1870 2.6640 -0.765 0.643 0.018 68 73 79 0
10.6573 -1.1484 2.5010 -0.729 0.000 0.684 66 71 77 0
10.0475 -1.2302 2.4424 -0.808 0.583 0.084 47 48 55 0
9.2763 -1.3090 2.3658 -0.595 0.497 -0.632 14 13 27 0
9.2252 -1.3188 2.3612 -0.608 0.492 -0.622 10 10 23 0
9.0104 -1.3074 2.3366 -0.607 0.519 -0.602 18 17 30 0
8.9676 -1.3177 2.3329 -0.700 0.473 -0.535 45 45 55 0
5.9008 11.3788 0.7135 -0.942 -0.301 -0.150 125 158 198 0
5.8626 11.2892 0.7183 -0.869 -0.325 0.373 126 159 197 0
5.8719 11.2680 0.7214 -0.869 -0.325 0.373 133 160 197 0
5.8756 11.2391 0.7247 -0.530 -0.731 0.429 203 170 122 0
5.8923 11.2287 0.7276 -0.618 -0.637 0.460 214 140 23 0
5.8857 11.1510 0.7346 -0.980 0.196 -0.029 74 29 10 0
5.8980 11.1344 0.7376 -0.986 0.079 0.149 171 82 32 0
5.8956 11.0969 0.7411 -0.986 0.079 0.149 163 67 11 0
5.8951 11.0623 0.7445 -0.985 0.155 0.070 252 182 22 0
5.9093 11.0484 0.7475 -0.970 -0.150 0.191 252 187 1 0
5.9305 11.0442 0.7502 -0.743 -0.647 0.169 253 188 2 0
5.9774 11.0756 0.7521 -0.553 -0.639 0.535 253 188 2 0
20.2011 25.3768 0.8506 -0.741 -0.600 0.303 124 159 198 0
20.2420 25.3409 0.8586 -0.741 -0.594 0.314 127 162 200 0
20.2930 25.3163 0.8666 -0.833 -0.352 0.426 126 162 199 0
20.3231 25.2678 0.8747 -0.804 -0.564 0.189 128 162 200 0
20.2282 25.0783 0.8834 -0.852 -0.234 0.468 125 160 198 0
20.2422 25.0122 0.8915 -0.854 -0.236 0.463 121 160 198 0
20.8892 24.8240 0.9800 -0.451 -0.764 0.461 26 26 31 0
19.2818 22.9279 0.9969 -0.910 -0.315 0.271 21 20 22 0
19.0364 22.5884 1.0045 -0.921 -0.318 0.226 30 28 30 0
19.0512 22.5292 1.0120 -0.916 -0.335 0.221 32 32 33 0
19.1355 22.5441 1.0195 -0.882 -0.409 0.232 33 33 34 0
19.1971 22.5346 1.0271 -0.887 -0.389 0.249 35 35 36 0
19.6005 22.5068 1.0733 -0.902 -0.167 0.398 28 28 30 0
19.4443 21.7485 1.1324 -0.847 -0.361 0.390 29 31 36 0
19.4398 21.6702 1.1397 -0.830 -0.356 0.428 30 33 38 0
19.4646 21.6216 1.1473 -0.830 -0.356 0.428 30 33 39 0
12.9896 14.8453 1.1290 -0.344 -0.735 0.584 46 45 48 0
13.1206 14.7710 1.1506 -0.433 -0.696 0.573 96 38 11 0
13.1552 14.7540 1.1560 -0.433 -0.696 0.573 172 94 24 0
14.0293 13.7415 1.3514 -0.965 -0.260 0.039 198 186 170 0
14.0760 13.7315 1.3574 -0.940 -0.203 0.273 199 187 171 0
14.0505 13.3144 1.3964 -0.968 -0.099 0.231 201 190 173 0
14.0560 13.2210 1.4063 -0.934 -0.331 0.138 201 190 173 0
14.0280 13.1493 1.4105 -0.800 -0.595 0.070 201 189 173 0
14.0508 13.1193 1.4160 -0.800 -0.595 0.070 200 187 171 0
14.0510 13.0708 1.4208 -0.827 -0.561 0.036 201 189 173 0
14.0573 13.0274 1.4258 -0.905 -0.399 0.147 199 187 171 0
14.0676 12.9873 1.4310 -0.900 -0.409 0.149 198 186 170 0
14.1038 12.9680 1.4368 -0.970 -0.073 -0.231 201 189 173 0
14.1061 12.9215 1.4417 -0.970 -0.073 -0.231 203 191 175 0
14.1076 12.8744 1.4466 -0.981 -0.059 -0.185 205 193 176 0
14.1246 12.8398 1.4519 -0.980 -0.030 -0.199 173 163 153 0
14.1214 12.1719 1.5184 -0.948 -0.319 0.014 58 49 47 0
14.1289 12.1307 1.5233 -0.855 -0.516 -0.055 69 57 52 0
14.1481 12.0983 1.5286 -0.855 -0.516 -0.055 130 118 112 0
14.2944 12.0665 1.5475 -0.892 -0.365 0.265 86 73 70 0
13.9937 11.7983 1.5420 -0.998 -0.010 -0.065 83 70 65 0
14.0376 11.5558 1.5710 -0.755 -0.541 0.371 204 86 2 0
14.0426 11.5138 1.5758 -0.943 -0.316 0.102 201 96 13 0
14.1164 11.3393 1.6012 -0.870 -0.256 -0.421 239 156 3 0
14.1781 11.3373 1.6080 -0.703 -0.698 -0.135 243 180 14 0
14.2041 11.3100 1.6135 -0.703 -0.698 -0.135 237 202 43 0
14.3708 11.0175 1.6607 -0.985 -0.042 0.169 212 200 191 0
14.4092 10.9533 1.6713 -0.990 0.089 -0.106 217 205 197 0
14.4234 10.9177 1.6764 -0.978 0.138 -0.155 211 199 190 0
14.4157 10.8678 1.6806 -0.978 0.138 -0.155 202 189 179 0
14.4018 10.7693 1.6889 -0.979 0.127 -0.161 190 177 160 0
14.4085 10.7292 1.6937 -0.999 -0.029 -0.017 193 178 158 0
14.4083 10.6845 1.6981 -0.821 -0.417 0.389 197 180 161 0
14.2482 10.5367 1.6957 -0.982 -0.168 0.091 203 186 165 0
14.2460 10.4914 1.7000 -0.988 -0.128 0.086 211 195 172 0
14.2535 10.4087 1.7091 -0.980 -0.199 -0.011 211 195 172 0
14.3995 9.8500 1.7807 -0.992 0.122 -0.014 217 204 181 0
14.4116 9.8144 1.7856 -0.931 0.289 -0.221 214 199 179 0
14.4013 9.7655 1.7893 -0.917 0.341 -0.205 216 201 179 0
14.3564 9.6539 1.7957 -0.928 0.276 -0.250 212 196 173 0
14.3633 9.3627 1.8256 -0.855 -0.518 0.020 199 178 155 0
14.4826 8.7652 1.8982 -0.832 -0.263 -0.489 144 116 93 0
14.9273 8.9583 1.9267 -0.203 -0.119 -0.972 139 111 89 0
14.9405 8.9232 1.9317 -0.204 -0.121 -0.972 133 105 83 0
14.9489 8.8857 1.9363 -0.214 -0.099 -0.972 129 99 77 0
14.9492 8.8439 1.9405 -0.214 -0.099 -0.972 129 98 76 0
14.9656 8.8106 1.9456 -0.228 0.073 -0.971 123 94 73 0
14.9090 8.7397 1.9466 -0.229 0.076 -0.970 120 91 72 0
14.8600 8.6731 1.9480 -0.230 0.076 -0.970 116 88 66 0
14.8496 8.6264 1.9516 -0.247 -0.054 -0.967 115 85 64 0
14.8443 8.5001 1.9637 -0.195 -0.113 -0.974 115 84 63 0
14.8392 8.4566 1.9675 -0.199 -0.108 -0.974 114 83 62 0
14.5650 8.2794 1.9557 -0.992 -0.107 0.064 112 81 60 0
14.5694 8.2413 1.9600 -0.992 -0.107 0.064 110 79 59 0
14.5652 8.1991 1.9638 -0.990 -0.116 0.077 109 79 58 0
14.5840 7.8499 2.0007 -0.996 -0.062 0.064 96 67 46 0
14.5867 7.8117 2.0049 -0.996 -0.062 0.064 93 66 45 0
15.1498 7.9126 2.0553 -0.327 0.004 -0.945 85 61 43 0
14.6852 7.6603 2.0306 -0.985 -0.052 0.165 97 69 51 0
14.6102 7.5870 2.0299 -0.987 -0.126 0.101 106 73 52 0
15.0688 7.7548 2.0624 -0.454 0.114 -0.884 104 73 52 0
15.0411 7.7023 2.0647 -0.622 0.463 -0.631 86 60 41 0
14.9949 7.6418 2.0658 -0.622 0.463 -0.631 78 56 36 0
14.9491 7.5817 2.0669 -0.622 0.463 -0.631 74 52 35 0
14.8519 7.4992 2.0647 -0.812 0.236 -0.534 74 52 35 0
14.8366 7.4532 2.0676 -0.812 0.236 -0.534 71 49 32 0
14.7909 7.3161 2.0764 -0.853 0.013 0.522 66 45 29 0
14.8645 7.2310 2.0929 -0.837 0.433 0.334 58 36 22 0
14.6330 6.9797 2.0931 -0.828 -0.312 -0.466 113 83 66 0
14.5286 6.8985 2.0900 -0.660 -0.652 0.372 152 117 87 0
14.6522 6.9117 2.1020 -0.872 -0.298 -0.388 159 123 88 0
14.6618 6.8777 2.1064 -0.872 -0.298 -0.388 153 116 83 0
14.6888 6.8129 2.1158 -0.927 -0.232 -0.295 161 121 87 0
14.6861 6.7740 2.1194 -0.941 -0.168 -0.292 179 148 116 0
14.7082 6.7450 2.1247 -0.961 -0.268 -0.064 217 201 180 0
15.7743 6.8524 2.2286 -0.841 0.217 0.495 249 243 229 0
22.5598 7.2733 2.9164 -0.066 -0.973 0.220 235 226 211 0
33.4146 8.3656 3.9747 -0.942 0.096 -0.321 44 45 45 0
30.0865 7.0158 3.7518 -0.818 0.123 -0.562 40 44 46 0
32.9451 6.9544 4.0655 -0.842 0.540 0.018 53 53 54 0
33.2468 6.7425 4.1191 -0.889 -0.336 0.311 27 25 22 0
33.9581 4.2032 4.4498 -0.571 -0.522 -0.633 38 40 44 0
33.1950 3.2375 4.4644 -0.838 0.016 -0.546 37 41 44 0
33.1205 3.1689 4.4632 -0.694 -0.653 -0.303 37 40 44 0
35.0096 2.9456 4.6888 -0.981 0.121 -0.152 9 9 11 0
34.9684 2.8779 4.6912 -0.982 0.112 -0.151 11 11 13 0
34.5295 2.7177 4.6600 -0.902 0.402 -0.156 9 9 11 0
25.3885 1.8696 3.7616 -0.854 -0.292 -0.431 103 95 81 0
25.8410 0.5819 3.9391 -0.734 -0.385 -0.560 28 17 14 0
25.6905 0.2148 3.9597 -0.976 -0.036 0.216 19 9 7 0
25.7971 -1.0756 4.1003 -0.375 -0.170 -0.912 7 2 1 0
25.7885 -1.2056 4.1124 -0.301 -0.264 -0.917 7 1 1 0
14.9484 -1.0118 2.9270 -0.787 -0.298 -0.540 89 89 91 0
15.0386 -1.0438 2.9399 -0.461 -0.114 -0.880 87 87 89 0
14.9577 -1.0643 2.9332 -0.505 -0.042 -0.862 85 85 90 0
12.9676 -1.1096 2.7237 -0.664 0.542 0.515 78 82 86 0
10.6584 -1.1501 2.4793 -0.784 -0.007 0.620 67 71 77 0
10.2140 -1.2322 2.4397 -0.718 0.194 -0.668 49 50 58 0
10.0264 -1.2293 2.4193 -0.798 0.582 0.157 52 55 60 0
9.9855 -1.2424 2.4162 -0.797 0.581 0.165 54 57 62 0
9.8936 -1.2494 2.4070 -0.945 0.302 0.124 53 56 61 0
9.2761 -1.3103 2.3466 -0.594 0.499 -0.631 10 10 23 0
9.2241 -1.3199 2.3420 -0.607 0.505 -0.614 37 38 48 0
9.0245 -1.3105 2.3196 -0.603 0.512 -0.612 48 50 59 0
8.9460 -1.3162 2.3117 -0.681 0.427 -0.595 51 52 60 0
5.8751 11.2662 0.6986 -0.945 -0.294 0.143 138 160 193 0
5.8923 11.2222 0.7049 -0.631 -0.638 0.441 181 108 14 0
5.8913 11.1524 0.7118 -0.980 0.200 -0.014 90 42 23 0
5.8814 11.1045 0.7156 -0.980 0.200 -0.014 155 68 21 0
5.8867 11.0780 0.7188 -0.983 0.176 -0.058 171 83 18 0
5.8918 11.0513 0.7221 -0.985 0.155 0.070 252 189 13 0
5.9017 11.0314 0.7251 -0.962 -0.164 0.217 253 188 1 0
5.9318 11.0397 0.7275 -0.745 -0.644 0.173 253 188 2 0
5.9772 11.0689 0.7293 -0.585 -0.569 0.578 252 187 1 0
20.2865 25.3770 0.7986 -0.824 -0.340 0.453 125 161 199 0
20.2766 25.2831 0.8070 -0.833 -0.352 0.426 124 160 198 0
20.1434 25.0500 0.8165 -0.833 -0.244 0.497 123 160 200 0
20.1650 24.9926 0.8245 -0.833 -0.244 0.497 119 159 200 0
20.1347 24.8770 0.8330 -0.850 -0.220 0.479 116 159 201 0
20.4007 24.3607 0.9132 -0.554 -0.761 0.338 105 158 202 0
20.8760 24.7954 0.9196 -0.451 -0.764 0.461 28 42 64 0
19.2976 22.9318 0.9408 -0.899 -0.343 0.273 30 30 32 0
19.3199 22.8796 0.9484 -0.899 -0.343 0.273 29 28 31 0
19.3348 22.8196 0.9560 -0.904 -0.326 0.275 32 32 35 0
19.1643 22.5619 0.9640 -0.888 -0.402 0.223 34 34 36 0
19.4122 22.6744 0.9789 -0.745 -0.122 0.656 35 35 37 0
19.4834 22.6739 0.9865 -0.795 -0.065 0.603 31 30 35 0
19.5224 22.5635 1.0017 -0.719 -0.017 0.695 29 29 31 0
19.5575 22.4491 1.0170 -0.707 -0.067 0.704 30 29 32 0
19.3082 21.9664 1.0393 -0.859 -0.285 0.425 29 28 32 0
19.3329 21.9178 1.0468 -0.847 -0.361 0.390 32 31 36 0
19.3572 21.8688 1.0544 -0.847 -0.361 0.390 36 37 39 0
19.3815 21.8198 1.0619 -0.847 -0.361 0.390 19 20 24 0
19.4059 21.7707 1.0694 -0.847 -0.361 0.390 32 32 37 0
19.4412 21.7328 1.0770 -0.856 -0.300 0.420 31 32 38 0
19.4556 21.6737 1.0845 -0.834 -0.344 0.431 31 33 40 0
19.4483 21.5928 1.0918 -0.830 -0.356 0.428 30 34 40 0
19.4915 21.5627 1.0994 -0.855 -0.294 0.428 31 35 42 0
18.6182 20.6163 1.1026 -0.907 0.005 0.421 20 22 28 0
12.9719 14.8192 1.0905 -0.430 -0.687 0.586 54 50 50 0
14.0297 13.7339 1.3119 -0.965 -0.260 0.039 199 187 171 0
14.0417 13.6942 1.3172 -0.969 -0.246 0.033 199 187 171 0
14.0204 13.2816 1.3566 -0.958 -0.129 0.257 200 188 172 0
14.0275 13.2386 1.3617 -0.958 -0.129 0.257 201 190 173 0
14.0180 13.1820 1.3664 -0.895 -0.424 0.141 201 190 173 0
14.0194 13.1344 1.3713 -0.845 -0.532 0.056 201 189 173 0
14.0580 13.1174 1.3771 -0.803 -0.591 0.084 202 190 174 0
14.0533 13.0650 1.3819 -0.827 -0.561 0.036 203 191 175 0
14.0487 13.0127 1.3867 -0.900 -0.409 0.149 195 183 167 0
14.0654 12.9779 1.3920 -0.900 -0.409 0.149 200 188 172 0
14.1130 12.9678 1.3980 -0.970 -0.073 -0.231 206 195 179 0
14.1154 12.9213 1.4030 -0.970 -0.073 -0.231 204 194 179 0
14.1294 12.8842 1.4082 -0.987 0.008 -0.158 164 153 143 0
14.1240 12.1666 1.4800 -0.948 -0.320 0.003 60 50 48 0
14.1336 12.1270 1.4851 -0.855 -0.516 -0.055 134 121 110 0
14.1528 12.0946 1.4904 -0.855 -0.516 -0.055 129 117 107 0
14.3053 12.0673 1.5092 -0.943 -0.261 0.209 87 73 70 0
13.9941 11.7915 1.5042 -0.997 -0.048 -0.052 84 70 66 0
14.0173 11.7627 1.5095 -0.999 -0.002 -0.054 63 50 47 0
13.9965 11.7016 1.5135 -0.998 -0.010 -0.065 53 37 31 0
14.0286 11.5423 1.5330 -0.755 -0.541 0.371 202 85 2 0
14.0412 11.5059 1.5380 -0.943 -0.316 0.102 207 104 18 0
14.1564 11.3605 1.5648 -0.624 -0.751 -0.213 238 158 3 0
14.1864 11.3361 1.5704 -0.703 -0.698 -0.135 244 186 17 0
14.2266 11.3188 1.5764 -0.695 -0.707 -0.130 233 198 44 0
14.3800 11.0169 1.6231 -0.991 -0.016 0.134 151 138 129 0
14.3890 10.9780 1.6280 -0.970 0.226 -0.086 152 139 130 0
14.4369 10.9650 1.6344 -0.991 0.064 -0.119 152 139 130 0
14.4326 10.9171 1.6388 -0.980 0.133 -0.149 151 138 129 0
14.4252 10.8674 1.6430 -0.980 0.133 -0.149 142 128 119 0
14.4178 10.8178 1.6472 -0.980 0.133 -0.149 121 107 97 0
14.3437 10.6803 1.6533 -0.800 -0.456 0.389 96 78 62 0
14.4581 10.3565 1.6980 -0.986 -0.067 0.156 123 95 73 0
14.4918 10.3337 1.7039 -0.998 0.015 0.060 123 95 74 0
14.4986 10.2941 1.7086 -0.997 0.025 0.070 125 97 75 0
14.5065 10.2552 1.7134 -0.985 -0.169 0.044 122 95 73 0
14.5135 10.2158 1.7181 -0.985 -0.169 0.044 120 92 70 0
14.5146 10.1728 1.7225 -0.982 -0.183 0.041 117 89 68 0
14.5185 10.1316 1.7271 -0.983 -0.180 0.038 114 83 63 0
14.5258 10.0926 1.7318 -0.983 -0.180 0.038 112 84 63 0
14.5396 10.0575 1.7368 -0.980 -0.192 0.052 108 80 57 0
14.5405 10.0146 1.7412 -0.983 -0.180 0.038 106 77 54 0
14.7599 9.7980 1.7863 -0.156 -0.012 -0.988 97 68 46 0
14.8908 9.7870 1.8013 -0.227 0.125 -0.966 84 56 37 0
15.3542 9.1340 1.9162 -0.604 -0.677 -0.419 45 24 8 0
15.3809 9.1050 1.9219 -0.614 -0.671 -0.416 47 25 10 0
15.0933 8.7446 1.9279 -0.233 -0.022 -0.972 55 36 25 0
15.0956 8.2895 1.9740 -0.101 -0.138 -0.985 55 40 28 0
15.0989 8.2500 1.9784 -0.103 -0.136 -0.985 56 41 29 0
15.1828 8.0035 2.0121 -0.333 -0.004 -0.943 53 39 27 0
15.2716 7.9222 2.0297 -0.454 0.104 -0.885 75 52 39 0
15.2262 7.8609 2.0311 -0.444 0.102 -0.890 94 65 47 0
15.1723 7.7961 2.0319 -0.450 0.113 -0.886 89 61 45 0
15.0791 7.7140 2.0304 -0.585 0.445 -0.678 61 42 28 0
15.0310 7.6525 2.0315 -0.585 0.445 -0.678 52 38 24 0
15.0629 7.6269 2.0374 -0.627 0.469 -0.621 51 37 24 0
14.8802 7.4671 2.0342 -0.818 0.238 -0.524 49 35 20 0
14.8581 7.4181 2.0368 -0.817 0.223 -0.532 48 35 19 0
14.6665 6.9125 2.0676 -0.903 -0.267 -0.337 107 77 54 0
14.6852 6.8822 2.0726 -0.927 -0.232 -0.295 118 84 61 0
14.6955 6.8485 2.0771 -0.927 -0.230 -0.297 69 41 28 0
14.6892 6.8081 2.0806 -0.994 0.063 0.088 104 75 58 0
14.6791 6.7662 2.0837 -0.994 0.066 0.084 149 110 80 0
14.7000 6.6991 2.0927 -0.980 0.148 0.136 178 150 124 0
23.0529 7.9911 2.8456 -0.471 -0.630 0.617 238 231 217 0
24.0076 7.4216 3.0040 -0.159 -0.811 -0.563 62 53 45 0
33.4281 8.2901 3.9125 -0.942 0.096 -0.321 35 35 35 0
33.3918 8.2114 3.9166 -0.948 0.055 -0.314 45 48 51 0
33.3855 8.1398 3.9232 -0.948 0.055 -0.314 47 49 51 0
33.2716 7.9745 3.9278 -0.952 0.032 -0.304 46 50 51 0
31.1025 7.1633 3.7803 -0.924 -0.051 0.380 54 55 57 0
33.4410 6.8396 4.0603 -0.875 -0.369 0.313 29 26 21 0
33.2838 6.7419 4.0535 -0.917 -0.307 0.255 28 26 22 0
34.0656 5.8645 4.2247 -0.670 -0.674 -0.310 13 13 24 0
34.9309 3.7131 4.5333 -0.936 0.253 0.245 41 45 46 0
34.8614 3.5102 4.5465 -0.955 0.089 0.283 39 43 44 0
33.1514 3.1652 4.4004 -0.694 -0.653 -0.303 38 42 44 0
33.8262 2.9103 4.4975 -0.273 -0.720 -0.638 12 12 14 0
35.0544 2.9424 4.6242 -0.982 0.116 -0.146 12 13 15 0
35.0105 2.8745 4.6264 -0.981 0.121 -0.152 11 12 14 0
34.2078 2.6881 4.5603 -0.942 0.309 -0.128 10 10 11 0
25.0190 1.4703 3.7115 -0.963 0.021 -0.268 23 10 4 0
25.1747 0.9730 3.7782 -0.864 -0.352 -0.360 30 17 9 0
25.9177 0.5326 3.9012 -0.711 -0.437 -0.551 11 4 2 0
25.9369 0.4868 3.9078 -0.720 -0.432 -0.543 10 4 1 0
25.9531 0.3950 3.9188 -0.746 -0.380 -0.547 9 4 1 0
25.9058 0.2571 3.9277 -0.700 -0.423 -0.575 9 3 2 0
25.8795 0.2113 3.9296 -0.686 -0.420 -0.594 9 3 1 0
25.6465 0.1652 3.9096 -0.994 0.015 0.109 9 3 1 0
25.8917 -0.8200 4.0349 -0.368 -0.178 -0.912 12 8 6 0
25.8758 -0.8636 4.0376 -0.374 -0.168 -0.912 13 8 6 0
25.8830 -0.9078 4.0429 -0.374 -0.168 -0.912 13 8 7 0
25.8902 -0.9520 4.0481 -0.374 -0.168 -0.912 13 9 8 0
25.8974 -0.9961 4.0533 -0.374 -0.168 -0.912 15 11 9 0
25.8945 -1.0399 4.0574 -0.374 -0.166 -0.912 16 11 9 0
25.8945 -1.0836 4.0618 -0.375 -0.170 -0.912 15 11 9 0
25.9023 -1.1276 4.0671 -0.304 -0.253 -0.919 16 11 9 0
25.8875 -1.1706 4.0699 -0.301 -0.264 -0.917 17 12 10 0
15.0428 -1.0203 2.9079 -0.502 -0.420 -0.756 90 90 92 0
15.0457 -1.0466 2.9109 -0.469 -0.077 -0.880 88 88 90 0
13.3233 -1.0940 2.7335 -0.453 -0.848 -0.274 75 78 83 0
10.6394 -1.1497 2.4553 -0.784 -0.007 0.620 67 70 77 0
10.8082 -1.1854 2.4768 -0.681 -0.043 0.731 67 69 76 0
10.8335 -1.2069 2.4816 -0.681 -0.052 0.731 66 70 77 0
10.6123 -1.2030 2.4579 -0.714 0.277 -0.643 61 64 71 0
10.5308 -1.2315 2.4521 -0.596 0.491 -0.636 28 29 38 0
10.4696 -1.2433 2.4468 -0.598 0.428 -0.677 52 52 61 0
10.0075 -1.2287 2.3965 -0.793 0.592 0.141 53 55 60 0
9.9682 -1.2419 2.3937 -0.796 0.595 0.114 53 55 60 0
9.4635 -1.2687 2.3430 -0.827 0.517 0.220 9 8 23 0
9.3561 -1.3052 2.3353 -0.505 0.563 -0.654 6 6 20 0
9.1656 -1.2977 2.3144 -0.917 0.010 -0.399 30 32 44 0
9.0210 -1.2955 2.2989 -0.591 0.621 -0.514 50 53 62 0
8.9976 -1.3083 2.2977 -0.681 0.576 -0.453 51 54 61 0
8.9590 -1.3191 2.2947 -0.681 0.427 -0.595 37 39 48 0
5.8666 11.2819 0.6728 -0.950 -0.286 0.127 122 157 196 0
5.8741 11.2583 0.6760 -0.945 -0.294 0.143 145 161 187 0
5.8865 11.1393 0.6894 -0.975 -0.181 0.125 158 91 43 0
5.8746 11.0885 0.6933 -0.980 0.201 -0.008 134 47 9 0
5.8881 11.0736 0.6962 -0.984 0.170 -0.053 187 104 26 0
5.8866 11.0376 0.6997 -0.989 0.095 0.117 251 187 7 0
5.8973 11.0189 0.7028 -0.943 -0.210 0.258 253 188 1 0
5.9359 11.0390 0.7047 -0.739 -0.654 0.162 253 188 2 0
5.9704 11.0531 0.7069 -0.585 -0.569 0.578 253 188 1 0
20.0355 24.8324 0.7668 -0.781 -0.590 0.204 114 159 201 0
20.0263 24.7409 0.7751 -0.781 -0.581 0.230 113 159 202 0
20.3476 24.3696 0.8463 -0.554 -0.761 0.338 103 160 206 0
20.3939 24.3394 0.8542 -0.554 -0.761 0.338 99 155 201 0
19.2178 22.8327 0.8852 -0.989 -0.035 0.141 50 50 50 0
19.3193 22.8659 0.8924 -0.940 -0.249 0.232 25 25 27 0
19.3260 22.7970 0.9001 -0.904 -0.326 0.275 32 31 35 0
19.3474 22.7440 0.9077 -0.904 -0.326 0.275 33 33 35 0
19.4262 22.6762 0.9228 -0.792 -0.051 0.608 33 33 35 0
19.4598 22.6360 0.9304 -0.845 0.097 0.527 33 33 35 0
19.2909 21.9360 0.9840 -0.859 -0.285 0.425 30 29 32 0
19.3189 21.8909 0.9915 -0.847 -0.361 0.390 39 39 42 0
19.3432 21.8419 0.9990 -0.847 -0.361 0.390 36 36 38 0
19.3675 21.7929 1.0066 -0.847 -0.361 0.390 23 24 27 0
19.3918 21.7439 1.0141 -0.847 -0.361 0.390 35 37 42 0
19.4390 21.6445 1.0291 -0.834 -0.344 0.431 38 44 50 0
19.4632 21.5953 1.0366 -0.834 -0.344 0.431 37 43 50 0
19.4878 21.5466 1.0441 -0.856 -0.305 0.418 37 43 50 0
13.1044 14.6877 1.0785 -0.550 -0.721 0.421 108 41 4 0
13.7728 13.9014 1.2279 -0.278 -0.751 -0.599 195 183 171 0
13.8091 13.8835 1.2335 -0.278 -0.751 -0.599 192 181 170 0
13.8490 13.8686 1.2392 -0.292 -0.731 -0.617 190 179 169 0
14.0203 13.7178 1.2723 -0.970 -0.234 0.061 178 165 154 0
14.0355 13.6810 1.2777 -0.973 -0.224 0.046 173 161 149 0
13.9522 13.2173 1.3162 -0.920 -0.385 0.072 152 139 127 0
13.9676 13.1814 1.3214 -0.920 -0.385 0.072 154 142 129 0
13.9814 13.1441 1.3267 -0.859 -0.509 0.062 150 138 124 0
14.0010 13.1116 1.3320 -0.859 -0.509 0.062 146 134 122 0
14.0267 13.0841 1.3375 -0.855 -0.515 0.066 145 133 120 0
14.0665 13.0195 1.3482 -0.855 -0.515 0.066 133 120 107 0
14.1223 12.9676 1.3593 -0.970 -0.073 -0.231 127 114 102 0
14.1288 12.9244 1.3643 -1.000 0.015 0.001 114 102 92 0
14.1963 12.6888 1.3953 -0.979 -0.116 0.165 75 63 57 0
14.1258 12.1607 1.4417 -0.948 -0.320 0.003 67 56 47 0
14.1395 12.1241 1.4468 -0.860 -0.508 -0.045 83 69 59 0
14.1584 12.0915 1.4521 -0.860 -0.508 -0.045 75 62 52 0
14.4690 12.1809 1.4753 -0.901 -0.100 0.422 56 43 37 0
14.0622 11.8345 1.4683 -0.985 -0.123 0.121 51 37 30 0
14.0680 11.7927 1.4731 -0.985 -0.123 0.121 45 30 24 0
13.9991 11.6964 1.4758 -0.998 -0.010 -0.065 50 30 22 0
14.0211 11.5299 1.4950 -0.756 -0.543 0.367 199 82 2 0
14.0397 11.4979 1.5002 -0.943 -0.316 0.102 204 108 26 0
14.1812 11.3710 1.5278 -0.754 -0.636 -0.166 238 157 4 0
14.2159 11.3499 1.5336 -0.758 -0.618 -0.207 244 189 18 0
14.2498 11.3281 1.5393 -0.769 -0.610 -0.189 231 195 49 0
14.2636 11.2923 1.5444 -0.763 -0.624 -0.167 211 185 156 0
14.3229 11.2879 1.5510 -0.853 -0.520 0.046 187 168 153 0
14.2798 11.0776 1.5679 -0.713 -0.110 0.693 61 43 29 0
14.3621 11.0883 1.5754 -0.834 -0.374 0.406 59 40 26 0
14.3933 11.0642 1.5811 -0.914 -0.404 -0.040 59 41 27 0
14.3728 11.0054 1.5849 -0.914 -0.148 0.379 59 41 27 0
14.3911 10.9726 1.5901 -0.970 0.226 -0.086 58 40 26 0
14.3454 10.8974 1.5930 -0.990 0.076 0.120 56 39 24 0
14.2559 10.7491 1.5988 -0.992 0.122 0.015 54 36 22 0
14.2282 10.6867 1.6023 -0.820 -0.353 0.450 53 35 22 0
15.4365 11.1967 1.6760 -0.624 -0.669 -0.404 34 10 4 0
15.4630 11.1666 1.6818 -0.635 -0.664 -0.396 36 13 5 0
15.2507 8.3171 1.9496 -0.105 -0.133 -0.986 47 34 24 0
15.2567 8.2786 1.9541 -0.105 -0.133 -0.986 47 34 23 0
15.8018 8.2421 2.0145 -0.917 -0.136 0.375 46 31 19 0
15.8095 8.2036 2.0192 -0.917 -0.136 0.375 38 18 7 0
15.3464 7.9507 1.9968 -0.454 0.112 -0.884 75 53 42 0
15.3126 7.8946 1.9990 -0.451 0.113 -0.885 91 64 47 0
15.2610 7.8306 2.0002 -0.455 0.111 -0.884 88 62 48 0
14.9402 7.4881 2.0017 -0.727 0.251 -0.639 47 34 20 0
14.8195 7.2403 2.0143 -0.939 -0.124 0.320 59 44 33 0
14.5589 6.9389 2.0179 -0.658 -0.650 0.380 27 17 13 0
14.6889 6.9167 2.0337 -0.927 -0.232 -0.295 57 40 31 0
14.6963 6.8818 2.0380 -0.927 -0.232 -0.295 83 60 43 0
14.7037 6.8468 2.0423 -0.927 -0.232 -0.295 117 89 66 0
17.1328 7.5748 2.2207 -0.853 0.016 -0.522 177 151 123 0
33.4389 8.9222 3.7782 -0.797 -0.546 0.258 35 32 27 0
33.3696 7.9883 3.8660 -0.921 -0.062 -0.386 47 51 52 0
29.8775 6.7071 3.6334 -0.757 0.434 -0.488 58 58 59 0
30.0673 6.6219 3.6618 -0.939 -0.047 0.341 45 46 47 0
32.9015 6.9305 3.9250 -0.849 0.527 -0.023 56 56 58 0
33.5637 6.8552 4.0014 -0.883 -0.458 0.108 28 27 24 0
33.2915 6.6681 3.9922 -0.917 -0.307 0.255 25 26 26 0
33.6477 6.4626 4.0501 -0.992 0.107 0.060 5 5 9 0
33.3368 6.3398 4.0303 -0.982 0.108 0.153 12 11 18 0
33.1399 6.2382 4.0202 -0.949 0.265 0.169 13 13 23 0
33.2030 5.5872 4.0929 -0.703 -0.707 -0.080 13 13 23 0
33.0176 5.1680 4.1163 -0.986 0.024 -0.165 20 18 19 0
33.0533 5.1085 4.1261 -0.992 0.104 -0.072 21 19 23 0
34.8139 2.9173 4.5319 -0.931 -0.366 0.004 14 15 17 0
34.8629 2.7927 4.5497 -0.931 -0.366 0.004 10 10 12 0
25.6657 1.7827 3.6967 -0.750 -0.302 -0.589 36 22 13 0
25.2096 1.0610 3.7227 -0.913 0.084 -0.399 18 8 3 0
25.2182 0.9700 3.7329 -0.840 -0.376 -0.392 21 11 6 0
25.7777 0.8951 3.7986 -0.349 -0.727 -0.591 20 10 5 0
25.4169 0.2051 3.8313 -0.603 -0.277 -0.748 31 26 22 0
25.4301 0.1603 3.8372 -0.603 -0.277 -0.748 31 26 23 0
25.4460 0.1156 3.8434 -0.609 -0.275 -0.744 31 26 23 0
25.4849 -0.0184 3.8611 -0.609 -0.275 -0.744 31 26 23 0
25.9075 -1.3493 4.0404 -0.372 -0.194 -0.908 31 28 23 0
25.9239 -1.3936 4.0466 -0.379 -0.189 -0.906 32 28 24 0
15.0927 -1.0520 2.8863 -0.469 -0.077 -0.880 87 87 89 0
13.7734 -1.0833 2.7524 -0.721 0.640 0.267 81 84 87 0
13.3529 -1.0983 2.7102 -0.434 -0.858 -0.273 77 80 85 0
12.0338 -1.1851 2.5820 -0.727 0.359 0.585 69 73 79 0
10.7441 -1.1617 2.4456 -0.689 -0.139 0.711 66 71 77 0
10.7320 -1.1793 2.4461 -0.683 -0.115 0.721 68 71 78 0
10.7881 -1.2039 2.4544 -0.709 0.029 0.705 66 71 77 0
10.7401 -1.2178 2.4509 -0.747 0.381 0.546 62 65 72 0
9.4653 -1.2703 2.3237 -0.819 0.522 0.237 3 2 18 0
9.4040 -1.2960 2.3200 -0.726 0.685 -0.068 10 11 26 0
9.3288 -1.3031 2.3129 -0.850 0.520 0.089 37 40 50 0
9.0219 -1.2968 2.2803 -0.592 0.620 -0.516 51 55 61 0
8.9997 -1.3099 2.2794 -0.683 0.574 -0.453 28 30 38 0
8.9210 -1.3155 2.2717 -0.667 0.478 -0.572 26 28 38 0
5.8502 11.2518 0.6509 -0.942 -0.330 0.054 122 159 197 0
5.8702 11.2463 0.6535 -0.963 -0.267 0.040 151 161 177 0
5.9010 11.1875 0.6627 -0.719 -0.594 0.361 80 27 10 0
5.8852 11.1310 0.6668 -0.975 -0.181 0.125 211 128 46 0
5.8730 11.0799 0.6709 -0.980 0.201 -0.008 128 39 3 0
5.8847 11.0625 0.6738 -0.980 0.193 0.039 207 128 32 0
5.8828 11.0260 0.6774 -0.989 0.095 0.117 251 187 4 0
5.8937 11.0076 0.6804 -0.943 -0.210 0.258 253 187 1 0
5.9334 11.0292 0.6822 -0.835 -0.526 0.162 252 187 1 0
12.1327 18.7211 0.5264 -0.350 -0.130 -0.928 156 174 204 0
12.1657 18.5901 0.5432 -0.545 -0.665 -0.512 158 177 206 0
12.2070 18.4127 0.5656 -0.509 -0.667 -0.544 153 173 203 0
20.4915 24.5935 0.7776 -0.505 -0.649 0.569 109 161 205 0
20.3073 24.3116 0.7877 -0.561 -0.756 0.338 109 161 205 0
20.3484 24.2760 0.7955 -0.557 -0.761 0.332 101 148 190 0
19.2106 22.8119 0.8295 -0.989 -0.035 0.141 42 42 43 0
19.3113 22.8441 0.8365 -0.940 -0.249 0.232 26 26 27 0
19.3171 22.7745 0.8442 -0.904 -0.326 0.275 29 29 31 0
19.3323 22.7150 0.8519 -0.911 -0.303 0.279 29 29 30 0
19.3535 21.7661 0.9513 -0.847 -0.361 0.390 40 42 46 0
19.3778 21.7171 0.9588 -0.847 -0.361 0.390 59 66 74 0
19.4058 21.6720 0.9663 -0.843 -0.215 0.493 60 71 80 0
19.4254 21.6183 0.9738 -0.843 -0.322 0.431 59 72 80 0
13.7685 15.4300 1.0309 -0.488 -0.711 0.507 127 87 54 0
14.1182 14.9724 1.1135 -0.399 -0.685 -0.609 93 73 55 0
14.0744 14.8795 1.1186 -0.965 -0.153 0.213 91 71 55 0
14.0698 14.8231 1.1239 -0.965 -0.143 0.221 85 65 51 0
14.0446 14.7478 1.1290 -0.982 -0.038 0.187 78 60 46 0
14.0742 14.7231 1.1346 -0.968 -0.202 -0.146 75 58 44 0
14.0120 14.6145 1.1394 -0.965 -0.215 -0.152 71 53 40 0
13.9525 14.5089 1.1441 -0.969 -0.237 -0.071 65 47 36 0
13.9580 14.4626 1.1494 -0.963 -0.254 -0.086 59 43 32 0
14.0904 14.3256 1.1770 -0.312 -0.471 -0.825 51 37 30 0
14.1171 14.2982 1.1825 -0.312 -0.471 -0.825 51 37 30 0
14.1364 14.2643 1.1880 -0.409 -0.395 -0.823 48 35 28 0
14.1571 14.2315 1.1934 -0.409 -0.395 -0.823 41 30 25 0
14.2349 14.1466 1.2101 -0.395 -0.344 -0.852 36 25 22 0
14.9067 14.6784 1.2242 -0.418 -0.350 -0.838 34 24 20 0
14.9258 14.6419 1.2298 -0.418 -0.350 -0.838 35 25 21 0
14.9590 14.6176 1.2357 -0.454 -0.307 -0.837 34 23 18 0
14.9750 14.5785 1.2414 -0.454 -0.307 -0.837 39 28 22 0
14.9910 14.5394 1.2470 -0.454 -0.307 -0.837 34 22 17 0
14.3483 13.8381 1.2533 -0.144 -0.046 -0.989 32 19 14 0
14.3607 13.7982 1.2587 -0.156 -0.006 -0.988 33 19 14 0
14.3703 13.5553 1.2846 -0.136 -0.002 -0.991 32 18 13 0
14.3494 13.4882 1.2893 -0.134 -0.003 -0.991 32 19 13 0
14.5192 13.2784 1.3281 -0.164 -0.043 -0.985 27 13 8 0
14.4223 13.0042 1.3464 -0.190 -0.225 -0.956 26 13 6 0
14.4383 12.9679 1.3517 -0.190 -0.225 -0.956 32 20 13 0
14.6708 13.1015 1.3618 -0.150 -0.029 -0.988 18 7 3 0
14.6524 13.0378 1.3664 -0.150 -0.029 -0.988 18 7 4 0
14.5544 12.9122 1.3693 -0.161 0.005 -0.987 18 7 3 0
14.1466 12.1222 1.4087 -0.855 -0.518 -0.034 29 16 9 0
14.1660 12.0899 1.4140 -0.855 -0.518 -0.034 27 13 6 0
14.1818 12.0550 1.4192 -0.860 -0.508 -0.045 24 10 5 0
14.0501 11.7266 1.4394 -0.997 0.002 -0.074 33 12 5 0
14.0263 11.4813 1.4621 -0.903 -0.257 0.344 207 117 27 0
13.9636 11.3914 1.4649 -0.861 -0.392 0.324 238 195 24 0
14.1735 11.3587 1.4897 -0.508 -0.807 0.302 237 156 3 0
14.2512 11.3676 1.4967 -0.508 -0.799 0.322 244 192 19 0
14.2871 11.3471 1.5025 -0.508 -0.799 0.322 225 187 50 0
14.3421 11.2942 1.5135 -0.757 -0.618 0.212 195 177 158 0
14.3861 11.0977 1.5382 -0.791 -0.396 0.466 58 42 27 0
14.4053 11.0655 1.5435 -0.791 -0.396 0.466 60 42 27 0
14.3911 11.0109 1.5476 -0.900 -0.104 0.423 61 43 29 0
14.3932 10.9673 1.5523 -0.970 0.226 -0.086 58 41 26 0
14.1483 10.6716 1.5576 -0.743 -0.590 0.316 55 37 25 0
14.1855 10.6520 1.5634 -0.814 -0.412 0.408 55 37 25 0
14.2560 10.5661 1.5794 -0.813 -0.391 0.432 54 38 25 0
15.4560 11.2022 1.6367 -0.624 -0.669 -0.404 30 8 2 0
15.3329 9.0679 1.8430 -0.142 0.062 -0.988 39 23 15 0
15.7707 8.2641 1.9701 -0.917 -0.244 0.317 34 20 11 0
15.8513 8.1749 1.9875 -0.832 -0.507 0.226 75 55 44 0
15.9206 8.0802 2.0043 -0.977 0.028 0.210 52 35 22 0
15.9419 8.0477 2.0098 -0.983 -0.003 0.186 46 33 19 0
14.9128 7.4708 1.9639 -0.816 0.219 -0.534 45 31 18 0
14.7075 6.8813 2.0034 -0.927 -0.232 -0.295 44 32 23 0
16.4503 7.3012 2.1382 -0.748 0.501 -0.435 148 109 76 0
17.1174 7.4346 2.1927 -0.924 -0.152 -0.351 230 218 202 0
19.3308 7.1205 2.4509 0.051 -0.997 0.058 237 231 217 0
23.8445 7.4159 2.8814 -0.436 -0.899 0.038 232 223 208 0
33.1290 7.7881 3.7912 -0.911 0.140 0.388 48 52 53 0
32.8854 7.5976 3.7858 -0.926 0.185 0.330 49 53 54 0
32.8734 7.5268 3.7919 -0.926 0.185 0.330 53 54 56 0
32.7720 6.8974 3.8460 -0.853 0.522 -0.016 56 57 58 0
32.7254 6.8213 3.8491 -0.853 0.522 -0.016 32 32 31 0
33.5595 6.8467 3.9317 -0.883 -0.458 0.108 28 28 26 0
33.2992 6.5944 3.9309 -0.917 -0.307 0.255 81 86 95 0
33.5850 6.5793 3.9617 -0.918 -0.260 0.300 16 17 21 0
33.6777 6.5282 3.9764 -0.915 -0.250 0.317 6 5 11 0
34.3538 6.5813 4.0400 -0.835 -0.347 0.426 5 5 9 0
33.4072 6.3447 3.9676 -0.900 -0.005 0.435 11 11 19 0
33.1247 6.2281 3.9507 -0.949 0.265 0.169 11 13 23 0
33.0264 5.5524 4.0100 -0.659 -0.703 -0.267 14 15 25 0
33.0791 5.4300 4.0279 -0.982 0.176 -0.063 15 14 22 0
33.0800 5.2999 4.0413 -0.973 -0.159 0.168 75 80 87 0
33.0914 5.2366 4.0490 -0.972 -0.172 0.160 27 26 26 0
33.1033 5.1734 4.0567 -0.973 -0.159 0.168 22 20 22 0
33.0369 5.0991 4.0575 -0.961 -0.134 0.243 21 20 23 0
33.1109 4.8514 4.0905 -0.851 0.014 0.525 24 24 24 0
34.8264 4.2154 4.3308 -0.734 -0.539 0.413 40 43 48 0
33.2425 3.2224 4.2709 -0.703 -0.641 -0.308 39 44 47 0
33.2894 3.1645 4.2817 -0.702 -0.637 -0.318 39 44 47 0
35.7812 2.8534 4.5680 -0.898 -0.302 -0.321 11 11 12 0
25.0796 1.7887 3.5846 -0.963 -0.209 -0.170 54 38 24 0
25.7135 1.7808 3.6501 -0.953 -0.156 -0.258 33 20 10 0
24.6672 1.5342 3.5686 -0.963 -0.139 -0.231 6 1 1 0
25.8553 0.8928 3.7556 -0.349 -0.727 -0.591 17 8 5 0
25.9241 0.8482 3.7672 -0.363 -0.621 -0.695 27 18 12 0
26.9013 -0.1689 3.9713 -0.390 -0.620 -0.681 42 39 34 0
26.8481 -1.1772 4.0693 -0.375 -0.272 -0.886 40 37 32 0
26.8660 -1.2231 4.0758 -0.375 -0.272 -0.886 40 37 32 0
26.8839 -1.2691 4.0823 -0.375 -0.272 -0.886 38 35 30 0
26.8488 -1.3124 4.0832 -0.365 -0.265 -0.892 38 35 30 0
26.8622 -1.3579 4.0892 -0.364 -0.268 -0.892 38 35 30 0
26.6504 -1.3918 4.0711 -0.782 -0.542 -0.308 38 35 30 0
26.3475 -1.4201 4.0430 -0.814 -0.011 -0.580 38 35 30 0
26.0614 -1.4482 4.0167 -0.862 0.056 -0.504 32 28 23 0
15.1399 -1.0574 2.8616 -0.469 -0.077 -0.880 87 87 89 0
12.1632 -1.1776 2.5700 -0.746 0.664 -0.050 67 70 78 0
10.7106 -1.1787 2.4218 -0.735 0.228 0.639 67 70 77 0
10.7140 -1.1979 2.4241 -0.735 0.238 0.635 66 70 76 0
10.7128 -1.2165 2.4259 -0.756 0.366 0.543 63 66 73 0
10.2179 -1.2370 2.3775 -0.749 0.443 -0.493 52 55 60 0
9.4591 -1.2708 2.3035 -0.819 0.522 0.237 4 3 17 0
9.4177 -1.2990 2.3022 -0.725 0.686 -0.064 43 46 55 0
9.3636 -1.3088 2.2976 -0.839 0.543 0.034 49 52 59 0
9.2061 -1.3054 2.2812 -0.572 0.556 -0.603 49 54 59 0
9.0093 -1.3124 2.2618 -0.683 0.574 -0.453 19 21 32 0
8.9335 -1.3183 2.2547 -0.667 0.478 -0.572 10 11 24 0
5.8838 11.1227 0.6443 -0.975 -0.181 0.125 202 115 38 0
5.8817 11.0520 0.6514 -0.980 0.193 0.039 230 154 36 0
5.8942 11.0357 0.6544 -0.885 -0.336 0.323 253 187 4 0
5.9029 11.0141 0.6575 -0.600 -0.795 -0.089 253 188 1 0
5.9428 11.0360 0.6592 -0.834 -0.528 0.161 253 188 2 0
12.3732 18.8520 0.4961 -0.390 -0.132 -0.911 153 173 204 0
12.1477 18.1537 0.5457 -0.333 -0.700 -0.632 146 169 201 0
21.5534 29.4827 0.3178 -0.994 0.067 -0.090 127 160 198 0
19.4440 24.6146 0.6095 -0.898 -0.345 -0.273 120 159 199 0
20.3340 24.3268 0.7285 -0.560 -0.754 0.344 124 166 207 0
20.3205 24.2318 0.7370 -0.563 -0.757 0.331 102 137 175 0
20.2474 24.0725 0.7461 -0.491 -0.834 0.253 20 24 39 0
20.2966 24.0459 0.7538 -0.491 -0.834 0.253 74 74 77 0
19.2034 22.7910 0.7739 -0.989 -0.035 0.141 38 38 41 0
19.3033 22.8224 0.7806 -0.940 -0.249 0.232 31 30 31 0
19.3242 22.7690 0.7883 -0.901 -0.339 0.272 36 35 35 0
19.3229 22.6919 0.7961 -0.911 -0.303 0.279 33 33 33 0
19.4206 22.4180 0.8342 -0.911 -0.333 0.243 31 30 32 0
19.3966 22.3179 0.8421 -0.933 -0.267 0.241 31 30 32 0
19.1162 21.8044 0.8671 -0.829 -0.418 0.371 29 29 29 0
19.3190 21.8658 0.8811 -0.845 -0.227 0.483 45 45 46 0
19.3379 21.8113 0.8886 -0.845 -0.227 0.483 32 32 36 0
19.3395 21.7393 0.8962 -0.847 -0.361 0.390 48 51 57 0
19.3638 21.6904 0.9037 -0.847 -0.361 0.390 59 70 82 0
19.3819 21.5620 0.9188 -0.877 -0.351 0.329 60 73 85 0
13.7648 15.4175 0.9907 -0.551 -0.799 0.239 102 52 17 0
13.9285 15.2586 1.0235 -0.945 -0.019 -0.327 99 43 1 0
14.0628 14.8080 1.0836 -0.965 -0.143 0.221 25 9 4 0
14.0394 14.7345 1.0888 -0.967 -0.138 0.213 27 11 6 0
13.8471 14.5068 1.0931 -0.958 -0.275 -0.085 27 12 6 0
13.9023 14.5060 1.0987 -0.963 -0.252 -0.090 26 10 5 0
13.9229 14.4736 1.1041 -0.965 -0.246 -0.095 26 10 6 0
13.9626 14.4584 1.1096 -0.963 -0.254 -0.086 25 9 6 0
13.9461 14.3923 1.1148 -0.543 -0.449 0.710 20 6 4 0
13.9808 14.3725 1.1203 -0.540 -0.458 0.706 18 6 4 0
14.1118 14.3875 1.1319 -0.294 -0.487 -0.823 17 5 4 0
14.1398 14.3612 1.1375 -0.294 -0.487 -0.823 17 5 4 0
14.1606 14.3284 1.1429 -0.317 -0.463 -0.828 15 4 3 0
14.1847 14.2985 1.1484 -0.304 -0.463 -0.833 13 4 2 0
14.2045 14.2648 1.1539 -0.409 -0.395 -0.823 11 3 1 0
14.2393 14.2443 1.1595 -0.414 -0.392 -0.821 13 4 2 0
14.2731 14.2227 1.1651 -0.452 -0.229 -0.862 14 4 3 0
14.2874 14.1840 1.1706 -0.395 -0.344 -0.852 13 4 2 0
15.0191 14.7140 1.1892 -0.429 -0.305 -0.850 11 4 3 0
15.0356 14.6750 1.1948 -0.429 -0.305 -0.850 15 5 3 0
14.5275 14.1350 1.1997 -0.140 -0.059 -0.988 18 7 5 0
14.5387 14.0932 1.2052 -0.141 -0.057 -0.988 14 4 2 0
14.5272 14.0323 1.2103 -0.141 -0.057 -0.988 16 6 5 0
14.8371 13.2241 1.3249 -0.140 0.019 -0.990 12 4 2 0
14.7471 12.9557 1.3436 -0.169 0.055 -0.984 11 4 2 0
14.0249 11.7012 1.4009 -0.998 -0.057 -0.015 29 8 5 0
14.0159 11.4670 1.4242 -0.903 -0.257 0.344 212 128 26 0
13.9648 11.3854 1.4275 -0.838 -0.446 0.314 243 206 16 0
